-2.592441067099571228e-02 -8.170683979988098145e-01 -2.215214818716049194e-01
-2.895986139774322510e-01 3.692183494567871094e-01 6.907606124877929688e-01
-3.273752629756927490e-01 -8.980650901794433594e-01 -3.341097831726074219e-01
1.030528470873832703e-01 -6.535638570785522461e-01 -2.634714730083942413e-02
-6.750026345252990723e-01 2.372511476278305054e-01 6.617619991302490234e-01
1.183257922530174255e-01 -9.468904733657836914e-01 -4.167485535144805908e-01
3.958196341991424561e-01 -8.770023584365844727e-01 -1.821871757507324219e+00
-2.371490746736526489e-01 -4.757352769374847412e-01 4.793795570731163025e-02
-3.363621234893798828e-01 -1.248305559158325195e+00 -3.853898346424102783e-01
-4.489384293556213379e-01 -7.291006445884704590e-01 -1.566649675369262695e-01
-2.761760056018829346e-01 -7.557818889617919922e-01 -1.789832115173339844e-01
-4.490429461002349854e-01 4.165966510772705078e-01 5.681338906288146973e-01
-2.063106298446655273e-01 2.655477821826934814e-01 6.857720613479614258e-01
-6.114864945411682129e-01 -5.090371370315551758e-01 1.793370097875595093e-01
-1.075641904026269913e-02 -8.959180116653442383e-01 -3.460153043270111084e-01
8.100510239601135254e-01 2.277282252907752991e-02 4.740738868713378906e-01
4.121333062648773193e-01 -8.925592899322509766e-01 -1.753475427627563477e+00
8.589545637369155884e-02 -8.596479296684265137e-01 -2.840718030929565430e-01
3.286945223808288574e-01 -1.113294005393981934e+00 -6.218254566192626953e-01
-9.870668500661849976e-02 -9.138275384902954102e-01 -3.385010063648223877e-01
6.712200492620468140e-02 -8.313879966735839844e-01 -1.791756600141525269e-01
3.909865021705627441e-01 -8.775904178619384766e-01 -2.574613690376281738e-01
-7.311037927865982056e-02 -4.971457123756408691e-01 2.717749774456024170e-02
7.897189259529113770e-01 -8.181387186050415039e-01 -3.571148216724395752e-01
9.382186532020568848e-01 -8.374360799789428711e-01 -3.826330900192260742e-01
1.060887336730957031e+00 -5.922161936759948730e-01 -2.658448517322540283e-01
1.049421876668930054e-01 -8.337926864624023438e-01 -3.104062676429748535e-01
1.064634799957275391e+00 -5.912603735923767090e-01 -2.600557804107666016e-01
2.201370298862457275e-01 -4.282650053501129150e-01 1.818592250347137451e-01
3.941899240016937256e-01 -8.055727481842041016e-01 -1.997172981500625610e-01
1.180558443069458008e+00 -2.992850542068481445e-01 3.874653205275535583e-02
3.959906846284866333e-02 -6.584682464599609375e-01 -6.725571304559707642e-02
9.444987177848815918e-01 -4.539928138256072998e-01 -1.007638573646545410e-01
-1.048711594194173813e-02 -1.182408571243286133e+00 -5.575351119041442871e-01
-4.643322527408599854e-01 -2.781713902950286865e-01 3.377101421356201172e-01
9.919364005327224731e-02 -8.010435700416564941e-01 -2.085503041744232178e-01
1.195592999458312988e+00 -7.545132935047149658e-02 2.325423508882522583e-01
9.887361526489257812e-01 -7.734262347221374512e-01 -2.843847870826721191e-01
-1.931992918252944946e-01 -6.900093555450439453e-01 -7.033165544271469116e-02
3.166634142398834229e-01 -6.752344965934753418e-01 -1.827088370919227600e-02
1.178882360458374023e+00 -2.099661529064178467e-01 1.141661107540130615e-01
2.902249693870544434e-01 -1.156032979488372803e-01 3.591933846473693848e-01
-5.148585438728332520e-01 -3.791704773902893066e-01 1.969244629144668579e-01
3.246695399284362793e-01 -8.922343254089355469e-01 -2.538599967956542969e-01
4.037629365921020508e-01 -8.414617776870727539e-01 -2.643083035945892334e-01
-4.060319438576698303e-02 -6.073007583618164062e-01 -4.809891059994697571e-02
-3.921942114830017090e-01 -8.366914391517639160e-01 -1.564165204763412476e-01
8.910788297653198242e-01 -4.986137449741363525e-01 2.887407839298248291e-01
1.399017721414566040e-01 -8.151551485061645508e-01 -2.796618044376373291e-01
8.683357834815979004e-01 -8.141655921936035156e-01 -3.548365235328674316e-01
1.091428875923156738e+00 -6.307621598243713379e-01 -3.773787617683410645e-01
-7.343612611293792725e-02 -8.623782396316528320e-01 -1.885583549737930298e-01
8.982122540473937988e-01 -4.732573330402374268e-01 -7.786294072866439819e-02
1.183081746101379395e+00 -3.467860817909240723e-01 4.215783998370170593e-02
9.491708278656005859e-01 -5.322200059890747070e-01 -7.886587083339691162e-02
2.802347242832183838e-01 -7.353261709213256836e-01 -2.001227587461471558e-01
1.120329618453979492e+00 -1.733170747756958008e-01 7.891395688056945801e-02
9.212688207626342773e-01 1.027952209115028381e-01 3.268574476242065430e-01
1.993835121393203735e-01 -1.014028191566467285e+00 -4.413411319255828857e-01
3.883898258209228516e-01 -9.807801246643066406e-01 -3.678597807884216309e-01
4.109211266040802002e-01 -8.567793369293212891e-01 -1.819057822227478027e+00
1.217327475547790527e+00 -2.176038771867752075e-01 1.483691185712814331e-01
-3.476679921150207520e-01 -9.266410470008850098e-01 -3.672933578491210938e-01
8.649986982345581055e-01 -8.306208252906799316e-01 -3.462960124015808105e-01
5.193029642105102539e-01 -9.353384971618652344e-01 -4.186674356460571289e-01
8.193262815475463867e-01 -6.468220353126525879e-01 -7.258858531713485718e-02
8.631333112716674805e-01 -9.309734106063842773e-01 -4.111672639846801758e-01
-1.223937869071960449e-01 -3.187599778175354004e-01 2.082171440124511719e-01
2.890730798244476318e-01 -1.100174069404602051e+00 -5.500885248184204102e-01
9.201385825872421265e-02 -5.731299519538879395e-01 -1.345120090991258621e-02
7.440660595893859863e-01 -8.406115770339965820e-01 -3.960877954959869385e-01
1.144781947135925293e+00 -5.893390774726867676e-01 -2.264676541090011597e-01
1.100480198860168457e+00 -6.325299739837646484e-01 -2.777989506721496582e-01
9.387066364288330078e-01 -5.527538657188415527e-01 -9.350990504026412964e-02
9.543193578720092773e-01 -9.174218177795410156e-01 -5.009764432907104492e-01
-3.668534457683563232e-01 -9.918506741523742676e-01 -2.557284533977508545e-01
8.864530324935913086e-01 -4.368605911731719971e-01 -1.153447404503822327e-01
6.827292591333389282e-02 -8.131213188171386719e-01 -2.212603539228439331e-01
9.905803203582763672e-01 -8.144270777702331543e-01 -3.189633190631866455e-01
1.060570597648620605e+00 -8.149108290672302246e-01 -5.004597306251525879e-01
4.622819423675537109e-01 -8.396267294883728027e-01 -2.930682301521301270e-01
-6.596413850784301758e-01 -4.219761490821838379e-01 1.681710332632064819e-01
-6.521763801574707031e-01 -2.623528540134429932e-01 1.888146698474884033e-01
1.127660870552062988e+00 2.055536955595016479e-02 2.994906306266784668e-01
3.422952890396118164e-01 -8.851717710494995117e-01 -2.727635204792022705e-01
-3.370848894119262695e-01 -6.484673023223876953e-01 -8.061143755912780762e-02
-1.555858850479125977e-01 -2.107600420713424683e-01 1.377260088920593262e-01
-2.560226945206522942e-03 -4.651433229446411133e-02 4.005684852600097656e-01
9.464941024780273438e-01 -5.189921259880065918e-01 -8.401473611593246460e-02
2.234300784766674042e-02 -7.431764602661132812e-01 -9.616553783416748047e-02
-4.784034788608551025e-01 -9.291772544384002686e-02 5.343320965766906738e-01
4.150067567825317383e-01 -9.670712351799011230e-01 -4.973573982715606689e-01
1.076543807983398438e+00 -7.298377752304077148e-01 -3.096011877059936523e-01
-4.886529445648193359e-01 -4.995646476745605469e-01 7.429978996515274048e-02
-1.600158214569091797e-02 -1.173857331275939941e+00 -5.699264407157897949e-01
3.182326257228851318e-01 -7.528839111328125000e-01 -2.056110352277755737e-01
9.222121834754943848e-01 -1.028636932373046875e+00 -4.824525415897369385e-01
9.433010816574096680e-01 -7.778180837631225586e-01 -2.923299372196197510e-01
-1.890867799520492554e-01 -7.349131107330322266e-01 -1.320011168718338013e-01
1.143109560012817383e+00 -2.802476882934570312e-01 5.977677926421165466e-02
-1.378279924392700195e-01 -7.649682164192199707e-01 -1.709756702184677124e-01
3.906359523534774780e-02 -8.031682372093200684e-01 -2.968074381351470947e-01
-1.774051189422607422e-01 -9.051061868667602539e-01 -3.767592608928680420e-01
-1.042255684733390808e-01 -1.044809341430664062e+00 -4.022223353385925293e-01
-2.268620952963829041e-02 -6.192014813423156738e-01 1.851936429738998413e-02
-4.022964835166931152e-01 -3.726376891136169434e-01 1.820472329854965210e-01
-5.471071600914001465e-02 -5.766109228134155273e-01 -2.662938274443149567e-02
-4.231850206851959229e-01 -5.621587634086608887e-01 5.919148027896881104e-02
-2.484641671180725098e-01 -6.418868899345397949e-01 -1.167601123452186584e-01
1.012270808219909668e+00 -5.770026445388793945e-01 -2.304253131151199341e-01
-4.969814419746398926e-01 -5.019490718841552734e-01 9.475917369127273560e-02
-5.859804153442382812e-01 -2.262511700391769409e-01 3.420601785182952881e-01
2.404606342315673828e-01 -8.894540667533874512e-01 -2.670972049236297607e-01
3.001007735729217529e-01 -1.121014952659606934e+00 -6.682001948356628418e-01
1.050715208053588867e+00 -5.616720318794250488e-01 -2.778546810150146484e-01
1.010118007659912109e+00 -4.423183500766754150e-01 -1.226377189159393311e-01
-4.760342091321945190e-02 -1.234495162963867188e+00 -5.656150579452514648e-01
4.094186127185821533e-01 -8.423048257827758789e-01 -1.794344067573547363e+00
-1.827929019927978516e-01 9.116173386573791504e-01 1.191501379013061523e+00
-8.127453327178955078e-01 6.680074334144592285e-02 6.370068192481994629e-01
1.117206066846847534e-01 -9.890665411949157715e-01 -4.122468233108520508e-01
1.144572019577026367e+00 -5.468553900718688965e-01 -1.663111299276351929e-01
1.162777304649353027e+00 -4.566971361637115479e-01 -2.384241819381713867e-01
-9.258488565683364868e-02 -8.267462253570556641e-01 -2.273711115121841431e-01
1.003166586160659790e-01 -8.371940255165100098e-02 4.054408371448516846e-01
8.291134834289550781e-01 -8.974672555923461914e-01 -4.609950184822082520e-01
4.147334992885589600e-01 -1.042833209037780762e+00 -7.613152265548706055e-01
-1.614771783351898193e-01 -8.441701531410217285e-01 -3.503756225109100342e-01
-5.733006596565246582e-01 -9.421609342098236084e-02 4.387897253036499023e-01
-1.494169235229492188e-01 -1.023403406143188477e+00 -5.659515857696533203e-01
4.985159039497375488e-01 -8.671230673789978027e-01 -2.973232865333557129e-01
9.699365496635437012e-01 -1.095284938812255859e+00 -4.789566397666931152e-01
4.319393038749694824e-01 -8.310271501541137695e-01 -1.447956264019012451e-01
9.108557701110839844e-01 -7.841030359268188477e-01 -4.157496690750122070e-01
8.792952299118041992e-01 -9.953594803810119629e-01 -5.110635757446289062e-01
9.486394524574279785e-01 -7.933487296104431152e-01 -4.164359867572784424e-01
1.277598619461059570e+00 2.072394490242004395e-01 2.516703307628631592e-01
-2.008300125598907471e-01 -9.124243855476379395e-01 -3.597769439220428467e-01
8.878830075263977051e-01 -7.027550339698791504e-01 -2.825182080268859863e-01
-3.699451684951782227e-02 -1.059978961944580078e+00 -5.844658613204956055e-01
1.263314366340637207e+00 -2.386094033718109131e-01 1.320203840732574463e-01
-1.519050598144531250e-01 -5.815643072128295898e-01 8.926339447498321533e-02
1.098441183567047119e-01 -6.660466790199279785e-01 1.503775920718908310e-02
-2.692936956882476807e-01 -1.662892103195190430e-01 4.210537672042846680e-01
-3.840990364551544189e-01 -3.120537102222442627e-01 2.345397025346755981e-01
3.909429013729095459e-01 -8.571335077285766602e-01 -1.809322357177734375e+00
3.935153186321258545e-01 -8.807024359703063965e-01 -2.439721673727035522e-01
4.953669011592864990e-02 -3.924919962882995605e-01 1.469276696443557739e-01
3.448602259159088135e-01 -1.237722635269165039e+00 -6.212382316589355469e-01
-1.978409588336944580e-01 -8.137540817260742188e-01 -2.404936254024505615e-01
-1.242100968956947327e-01 -6.632395386695861816e-01 -9.043489396572113037e-02
1.037235617637634277e+00 -3.304551541805267334e-01 7.245916873216629028e-02
9.049829840660095215e-01 -7.724272608757019043e-01 -3.429911434650421143e-01
8.910493552684783936e-02 -2.681301534175872803e-01 2.356507033109664917e-01
-3.187156617641448975e-01 -9.444851279258728027e-01 -3.152139484882354736e-01
3.635042011737823486e-01 -5.418438911437988281e-01 5.131896212697029114e-02
4.673085212707519531e-01 -9.084128737449645996e-01 -3.567472398281097412e-01
-8.702754974365234375e-01 3.933659791946411133e-01 8.383961319923400879e-01
9.656099230051040649e-02 -4.073663055896759033e-01 1.120253801345825195e-01
-1.686154454946517944e-01 -7.328450679779052734e-01 -2.328063994646072388e-01
-5.281581282615661621e-01 -2.819340825080871582e-01 2.391955107450485229e-01
9.541575908660888672e-01 -5.261982083320617676e-01 -1.760603338479995728e-01
-2.214095890522003174e-01 -4.853114783763885498e-01 -3.832064196467399597e-02
1.201111555099487305e+00 -1.234860047698020935e-01 2.298131138086318970e-01
-8.022926002740859985e-02 -7.111954689025878906e-01 -6.283562630414962769e-02
-4.100472852587699890e-02 -8.880196213722229004e-01 -3.161256611347198486e-01
-8.882454596459865570e-03 -8.915843963623046875e-01 -3.596982955932617188e-01
1.061141014099121094e+00 -8.755865097045898438e-01 -3.842006623744964600e-01
2.155713587999343872e-01 -7.222358584403991699e-01 -3.727290406823158264e-02
8.133153319358825684e-01 -4.494917988777160645e-01 -1.825961768627166748e-01
9.927103519439697266e-01 -5.233630537986755371e-01 -1.324745118618011475e-01
6.459698081016540527e-02 -7.303047180175781250e-01 -7.969815284013748169e-02
4.142665490508079529e-02 -1.045392155647277832e+00 -5.538550615310668945e-01
-1.902539134025573730e-01 -1.118198394775390625e+00 -5.045346617698669434e-01
7.972762733697891235e-02 -2.092418074607849121e-01 2.867752313613891602e-01
1.133111238479614258e+00 9.392487118020653725e-04 2.483033388853073120e-01
-4.648590981960296631e-01 -7.516786456108093262e-01 -1.050150468945503235e-01
-1.817384548485279083e-02 -9.215106368064880371e-01 -3.732484579086303711e-01
6.197660416364669800e-02 -5.683525800704956055e-01 -1.420337799936532974e-02
-1.110793352127075195e-01 -1.229467034339904785e+00 -8.877942562103271484e-01
-2.840681374073028564e-01 -4.064826965332031250e-01 1.884570270776748657e-01
-2.505650222301483154e-01 -3.368772268295288086e-01 2.540075480937957764e-01
9.940049052238464355e-01 -8.217731714248657227e-01 -4.066490530967712402e-01
1.101770639419555664e+00 -2.561224400997161865e-01 1.013393923640251160e-01
1.352430820465087891e+00 -1.244421601295471191e-01 1.942293643951416016e-01
-7.208364605903625488e-01 -8.951067924499511719e-03 4.248239994049072266e-01
2.537595629692077637e-01 -3.182536065578460693e-01 2.534927725791931152e-01
-3.729059994220733643e-01 -8.948306441307067871e-01 -2.920809090137481689e-01
1.121562123298645020e+00 -5.126215815544128418e-01 -2.179736346006393433e-01
8.313799500465393066e-01 -5.421076416969299316e-01 -1.111215427517890930e-01
-1.787564605474472046e-01 -7.613554000854492188e-01 -2.842957377433776855e-01
-1.825785636901855469e-01 -9.769202023744583130e-02 3.130514323711395264e-01
-5.122868418693542480e-01 -5.924464464187622070e-01 -1.106125116348266602e-01
1.128507137298583984e+00 5.001537501811981201e-02 3.038234710693359375e-01
4.240480661392211914e-01 -4.185436666011810303e-01 1.554078310728073120e-01
7.865393161773681641e-01 -1.168893575668334961e+00 -5.146107673645019531e-01
8.665083050727844238e-01 -6.982790827751159668e-01 -3.244201540946960449e-01
6.053303480148315430e-01 -1.102413654327392578e+00 -4.992943257093429565e-02
8.897732496261596680e-01 -9.022974967956542969e-01 -4.355919659137725830e-01
9.460783600807189941e-01 -1.100671887397766113e+00 -6.415030956268310547e-01
8.003481626510620117e-01 -8.158720135688781738e-01 -4.581131339073181152e-01
9.537781476974487305e-01 -7.184866070747375488e-02 2.539416849613189697e-01
5.374172925949096680e-01 -8.475993871688842773e-01 -3.014352917671203613e-01
2.946836873888969421e-02 -1.077340602874755859e+00 -2.803503274917602539e-01
2.227013260126113892e-01 -1.173379778861999512e+00 -6.155056953430175781e-01
1.434333682060241699e+00 3.403215706348419189e-01 3.311275243759155273e-01
3.935860693454742432e-01 -8.576956987380981445e-01 -1.814188361167907715e+00
5.344622135162353516e-01 -1.118922710418701172e+00 -1.772222369909286499e-01
-4.727630317211151123e-01 -4.375454187393188477e-01 2.100189179182052612e-01
3.923997282981872559e-01 -8.571920394897460938e-01 -1.825862646102905273e+00
1.230415225028991699e+00 2.752090096473693848e-01 3.235925137996673584e-01
5.867381691932678223e-01 -1.140325546264648438e+00 -6.564111709594726562e-01
-4.331492483615875244e-01 -6.619419455528259277e-01 -2.692837640643119812e-02
5.515736937522888184e-01 -9.214795827865600586e-01 -5.727901458740234375e-01
-2.744796872138977051e-01 -2.874110043048858643e-01 3.162660300731658936e-01
-1.904231756925582886e-01 -8.641841411590576172e-01 -3.003472983837127686e-01
-2.439592629671096802e-01 -1.537731587886810303e-01 2.593251466751098633e-01
3.178675472736358643e-01 -8.873089551925659180e-01 -2.914939522743225098e-01
-7.635130286216735840e-01 -2.481737732887268066e-01 5.067889690399169922e-01
1.169144034385681152e+00 -4.929870069026947021e-01 -7.384204864501953125e-02
8.248929977416992188e-01 -7.580895423889160156e-01 -2.512562572956085205e-01
1.054666638374328613e+00 -8.605531454086303711e-01 -3.989267945289611816e-01
1.102482914924621582e+00 -6.083705425262451172e-01 -3.053461909294128418e-01
8.608353137969970703e-01 -6.524365544319152832e-01 -3.068140447139739990e-01
-7.405422925949096680e-01 5.183098316192626953e-01 8.721379041671752930e-01
-2.402703911066055298e-01 -2.572994232177734375e-01 2.286154031753540039e-01
-1.470957845449447632e-01 -1.081891655921936035e+00 -4.402522146701812744e-01
-7.045986596494913101e-03 -4.219968914985656738e-01 1.136962845921516418e-01
4.664492905139923096e-01 -1.038096666336059570e+00 -6.383960843086242676e-01
6.635491847991943359e-01 -9.666440486907958984e-01 -6.903195381164550781e-01
7.855374217033386230e-01 -4.717015027999877930e-01 -1.761909425258636475e-01
1.138471841812133789e+00 -2.151164859533309937e-01 1.783772408962249756e-01
4.087340831756591797e-01 -7.303940653800964355e-01 -2.767561972141265869e-01
1.765289604663848877e-01 -2.688838839530944824e-01 3.580332398414611816e-01
2.511679530143737793e-01 -8.761820793151855469e-01 -2.465130984783172607e-01
9.081614017486572266e-01 -6.679496169090270996e-02 2.561514377593994141e-01
1.002654314041137695e+00 -4.671319723129272461e-01 -1.152430996298789978e-01
9.087683558464050293e-01 -4.224365949630737305e-01 -6.386177241802215576e-02
2.023326754570007324e-01 -8.441015481948852539e-01 -2.171272486448287964e-01
4.151163697242736816e-01 -8.690423369407653809e-01 -2.778644859790802002e-01
-1.164931990206241608e-02 -8.257383704185485840e-01 -2.437780797481536865e-01
8.739981055259704590e-01 -9.669950008392333984e-01 -5.160526037216186523e-01
-3.052458465099334717e-01 -4.935746192932128906e-01 1.009457483887672424e-01
1.004063367843627930e+00 -4.239024221897125244e-01 -5.535623803734779358e-02
-3.847058713436126709e-01 -5.903370380401611328e-01 3.272017836570739746e-02
1.007966637611389160e+00 -5.098175406455993652e-01 -1.207739487290382385e-01
-3.018497526645660400e-01 1.623439937829971313e-01 6.096789240837097168e-01
1.681444793939590454e-02 -9.074459671974182129e-01 -3.026757538318634033e-01
1.188132286071777344e+00 -2.824446260929107666e-01 8.790758997201919556e-02
-7.039681077003479004e-01 -2.803709506988525391e-01 3.639987111091613770e-01
8.959383964538574219e-01 -4.601353406906127930e-01 -1.265975981950759888e-01
-6.273199319839477539e-01 -4.355104267597198486e-01 8.720890432596206665e-02
-7.039906382560729980e-01 -1.222237944602966309e-01 4.824136197566986084e-01
1.806317716836929321e-01 -3.126721382141113281e-01 2.560919821262359619e-01
-3.418706059455871582e-01 -6.345933079719543457e-01 -1.437216699123382568e-01
4.327437579631805420e-01 -5.489067435264587402e-01 -4.933664575219154358e-02
1.137193799018859863e+00 -4.638254046440124512e-01 -2.762529850006103516e-01
-2.151208221912384033e-01 -5.134959220886230469e-01 6.343753635883331299e-02
-5.772063508629798889e-02 -8.564306497573852539e-01 -2.496987730264663696e-01
3.280116319656372070e-01 -6.760221123695373535e-01 -1.463598161935806274e-01
7.852924466133117676e-01 -5.777889490127563477e-01 -3.047695159912109375e-01
-5.235335826873779297e-01 -3.876012563705444336e-01 2.167880982160568237e-01
-1.744867414236068726e-01 -4.953360557556152344e-01 -4.147392138838768005e-02
8.918555378913879395e-01 -6.142359375953674316e-01 -1.681831926107406616e-01
1.017186045646667480e+00 -8.328800797462463379e-01 -4.329361319541931152e-01
-4.263527691364288330e-01 -9.868460893630981445e-01 -3.106006085872650146e-01
4.111535251140594482e-01 -8.569085001945495605e-01 -1.830103158950805664e+00
3.718511760234832764e-01 -8.689557313919067383e-01 -3.400289416313171387e-01
3.085382878780364990e-01 -1.035738945007324219e+00 -5.996304750442504883e-01
8.739175200462341309e-01 -1.058288104832172394e-02 3.792827427387237549e-01
8.595759868621826172e-01 -8.024640679359436035e-01 -3.407286107540130615e-01
-1.687013804912567139e-01 -5.527343153953552246e-01 1.150760427117347717e-01
-2.800233960151672363e-01 -6.597651243209838867e-01 -7.028883695602416992e-02
-3.316052258014678955e-01 -5.292668938636779785e-01 -2.953176759183406830e-02
8.547328412532806396e-02 -1.839620769023895264e-01 2.613417208194732666e-01
8.924801349639892578e-01 -9.962412118911743164e-01 -4.534644186496734619e-01
9.925591349601745605e-01 -2.806465923786163330e-01 5.424379184842109680e-02
1.085980057716369629e+00 -5.369955301284790039e-01 -1.361643671989440918e-01
-8.855200558900833130e-02 3.044345416128635406e-02 5.787425041198730469e-01
-5.955700278282165527e-01 -5.075842142105102539e-01 -3.612149879336357117e-02
9.045825600624084473e-01 -4.125382304191589355e-01 -6.425241380929946899e-02
1.077304601669311523e+00 -6.037884950637817383e-01 -2.369129210710525513e-01
-1.385844796895980835e-01 -6.246581673622131348e-01 -7.922920584678649902e-02
-1.234257593750953674e-01 -8.468199968338012695e-01 -2.689139842987060547e-01
1.004696488380432129e+00 -6.303871273994445801e-01 -2.258020937442779541e-01
9.926156997680664062e-01 -7.155649662017822266e-01 -3.453915119171142578e-01
-5.572189763188362122e-02 -9.949499964714050293e-01 -4.033076763153076172e-01
8.932549972087144852e-04 -1.126471281051635742e+00 -5.623594522476196289e-01
-1.054869815707206726e-01 -1.194581747055053711e+00 -5.657290816307067871e-01
-3.471219241619110107e-01 -8.564116954803466797e-01 -2.909159958362579346e-01
5.007141232490539551e-01 -7.679054737091064453e-01 -2.644567191600799561e-01
1.062165617942810059e+00 -2.311556190252304077e-01 4.480015486478805542e-02
7.118965983390808105e-01 -1.096844434738159180e+00 -8.005425333976745605e-01
9.148511886596679688e-01 -3.007170557975769043e-01 -8.806477300822734833e-03
4.647478759288787842e-01 -1.224528908729553223e+00 -4.990235865116119385e-01
3.849024772644042969e-01 -9.879833459854125977e-01 -4.859851896762847900e-01
1.284489870071411133e+00 2.209484279155731201e-01 3.039800822734832764e-01
5.723224878311157227e-01 -7.669913172721862793e-01 -1.090211793780326843e-01
-1.379316151142120361e-01 -6.162451505661010742e-01 9.561897255480289459e-03
-2.640494704246520996e-01 -5.272226929664611816e-01 -6.822884082794189453e-02
1.305965632200241089e-01 -5.378894880414009094e-02 2.924762964248657227e-01
4.204638898372650146e-01 -8.972172737121582031e-01 -1.839497923851013184e+00
1.168008089065551758e+00 -3.489499092102050781e-01 -1.492283642292022705e-01
9.616314768791198730e-01 -6.987087130546569824e-01 -2.753433287143707275e-01
-1.436805427074432373e-01 -5.266093835234642029e-02 4.244452714920043945e-01
5.217718482017517090e-01 -9.053621888160705566e-01 -3.808590471744537354e-01
2.051436901092529297e-01 -8.453350663185119629e-01 -2.527359127998352051e-01
9.185451269149780273e-01 -7.235940694808959961e-01 -2.898653447628021240e-01
2.261217087507247925e-01 -6.901038289070129395e-01 -4.622929170727729797e-02
1.013387322425842285e+00 -7.336180210113525391e-01 -3.234362602233886719e-01
6.500173807144165039e-01 -9.461808204650878906e-01 -8.024631142616271973e-01
9.145709276199340820e-01 1.913772374391555786e-01 2.897950410842895508e-01
-2.099532932043075562e-01 -6.845796108245849609e-01 -3.129754215478897095e-02
1.054472625255584717e-01 -7.267317771911621094e-01 -1.370380371809005737e-01
-2.875757515430450439e-01 -1.251054525375366211e+00 -3.804326057434082031e-01
-1.264654695987701416e-01 -8.143640756607055664e-01 -2.958858013153076172e-01
5.062978863716125488e-01 -8.814170360565185547e-01 -3.652909994125366211e-01
3.481077551841735840e-01 -9.298663735389709473e-01 -4.271060526371002197e-01
1.141598597168922424e-01 -1.179471969604492188e+00 -5.787847042083740234e-01
-1.955187022686004639e-01 -7.378314137458801270e-01 -2.539636790752410889e-01
8.059278130531311035e-01 -7.870928049087524414e-01 -3.516299128532409668e-01
-1.330951899290084839e-01 -8.443921804428100586e-01 -2.729137241840362549e-01
3.948989212512969971e-01 -1.114688277244567871e+00 -5.946379303932189941e-01
4.247107803821563721e-01 -9.733775258064270020e-01 -4.731657505035400391e-01
2.250644564628601074e-02 -5.616764426231384277e-01 1.222315356135368347e-01
8.929362893104553223e-01 -4.742144346237182617e-01 -1.613636016845703125e-01
-9.193482995033264160e-02 -8.184482455253601074e-01 -2.765573263168334961e-01
1.071023821830749512e+00 -7.309374809265136719e-01 -3.148717582225799561e-01
-6.141101010143756866e-03 -1.076009035110473633e+00 -5.437716841697692871e-01
2.990106940269470215e-01 -6.390830278396606445e-01 -7.644859701395034790e-02
8.896057009696960449e-01 -9.702892899513244629e-01 -4.849562644958496094e-01
-6.230314448475837708e-02 -9.770748615264892578e-01 -3.617605566978454590e-01
1.666671186685562134e-01 -5.265125632286071777e-01 1.414808481931686401e-01
4.082213938236236572e-01 -8.992066979408264160e-01 -1.818928122520446777e+00
-1.069678440690040588e-01 -8.361826539039611816e-01 -2.758902311325073242e-01
3.731483221054077148e-01 -5.361109375953674316e-01 4.892539605498313904e-02
1.008104324340820312e+00 -8.792195916175842285e-01 -4.047072231769561768e-01
-4.625366255640983582e-02 -3.553808629512786865e-01 2.165609598159790039e-01
9.439418911933898926e-01 -9.384311437606811523e-01 -3.642660081386566162e-01
9.329465031623840332e-01 -9.896406531333923340e-01 -5.126228928565979004e-01
-4.973919987678527832e-01 -7.091282010078430176e-01 -1.191914752125740051e-01
4.157467186450958252e-01 -8.953528404235839844e-01 -1.804854035377502441e+00
7.338778972625732422e-01 -5.647433400154113770e-01 -2.806763648986816406e-01
1.002548813819885254e+00 -6.678077578544616699e-01 -2.717098593711853027e-01
1.028046369552612305e+00 -5.227760672569274902e-01 -2.413562238216400146e-01
-2.040857970714569092e-01 -7.108079195022583008e-01 -4.481798037886619568e-02
1.001888394355773926e+00 -9.073325395584106445e-01 -4.190835356712341309e-01
-3.287150561809539795e-01 -2.930070459842681885e-01 3.397693932056427002e-01
-2.956793904304504395e-01 -9.193698167800903320e-01 -3.805974423885345459e-01
-9.886570274829864502e-02 -2.811995446681976318e-01 3.385976254940032959e-01
1.106160759925842285e+00 -2.151065915822982788e-01 9.183896332979202271e-02
8.561618924140930176e-01 -3.900184035301208496e-01 -1.480022221803665161e-01
-3.307747542858123779e-01 -5.548074841499328613e-01 -3.710363805294036865e-02
8.739184737205505371e-01 -4.544265866279602051e-01 -1.780794113874435425e-01
5.180061459541320801e-01 -1.179931998252868652e+00 -6.540574431419372559e-01
4.735405147075653076e-01 -6.101692914962768555e-01 -1.009044609963893890e-02
3.649818897247314453e-01 -6.953951716423034668e-01 -9.775841981172561646e-02
9.700033068656921387e-01 -8.016480207443237305e-01 -4.265652894973754883e-01
-4.808165729045867920e-01 -4.129376411437988281e-01 1.547317951917648315e-01
9.445194602012634277e-01 -4.461616575717926025e-01 -1.033703610301017761e-01
1.114464402198791504e+00 -4.029181972146034241e-02 2.392090260982513428e-01
8.359782099723815918e-01 -1.052431225776672363e+00 -4.921543598175048828e-01
2.788740098476409912e-01 -7.456119656562805176e-01 -2.064559012651443481e-01
-1.178611069917678833e-01 -8.701664805412292480e-01 -2.916547656059265137e-01
3.391484320163726807e-01 -8.792160749435424805e-01 -2.430862039327621460e-01
2.352868467569351196e-01 -1.142290353775024414e+00 -5.895748734474182129e-01
3.372885286808013916e-01 -8.136997222900390625e-01 -2.414339929819107056e-01
8.717982769012451172e-01 -6.930772066116333008e-01 -2.837878763675689697e-01
6.387670040130615234e-01 -9.352704882621765137e-01 -4.067085385322570801e-01
8.578690290451049805e-01 -6.256555318832397461e-01 -1.869174838066101074e-01
9.423387646675109863e-01 -6.534887552261352539e-01 -2.539139091968536377e-01
9.097546339035034180e-01 -4.376265108585357666e-01 -1.350193470716476440e-01
5.983121991157531738e-01 -1.160847902297973633e+00 -6.457838416099548340e-01
-2.352178096771240234e-01 -1.133506417274475098e+00 -5.027636289596557617e-01
5.705776438117027283e-02 2.873158268630504608e-02 4.498289823532104492e-01
-2.253214418888092041e-01 -7.665005326271057129e-01 -2.474230527877807617e-01
6.547625660896301270e-01 -1.035972595214843750e+00 -7.540159821510314941e-01
-2.848203778266906738e-01 -8.591484427452087402e-01 -2.360394448041915894e-01
7.395060062408447266e-01 -9.616839885711669922e-01 -5.412365794181823730e-01
-7.778322100639343262e-01 -2.323090732097625732e-01 4.954658448696136475e-01
8.271026015281677246e-01 -7.616532444953918457e-01 -3.292126059532165527e-01
8.872508406639099121e-01 -7.973356246948242188e-01 -3.168950974941253662e-01
2.564061284065246582e-01 -6.783392429351806641e-01 -5.580460280179977417e-02
-7.977033406496047974e-02 -3.254182338714599609e-01 1.666731834411621094e-01
-1.282853633165359497e-01 -2.004479914903640747e-01 8.024625480175018311e-02
1.058697342872619629e+00 -7.470201849937438965e-01 -4.001082181930541992e-01
-9.747356176376342773e-02 -6.205764412879943848e-01 -1.215482782572507858e-02
9.718064665794372559e-01 -8.612418770790100098e-01 -3.912059962749481201e-01
3.124769032001495361e-01 -8.219323754310607910e-01 -2.021971493959426880e-01
-3.794529139995574951e-01 -9.819613099098205566e-01 -3.504565656185150146e-01
9.248247742652893066e-01 -4.845395088195800781e-01 -4.125698283314704895e-02
-2.460842877626419067e-01 -5.271075367927551270e-01 9.593544155359268188e-02
5.823510289192199707e-01 -9.199488162994384766e-01 -4.105169177055358887e-01
2.245688289403915405e-01 -8.933255672454833984e-01 -3.766021430492401123e-01
-1.064299885183572769e-02 -1.025274872779846191e+00 -3.211598396301269531e-01
1.279985904693603516e-01 -1.162996590137481689e-01 3.423820436000823975e-01
7.339744269847869873e-02 -5.899512171745300293e-01 8.012484014034271240e-02
9.725802540779113770e-01 -4.131979942321777344e-01 -7.227631658315658569e-02
7.752319574356079102e-01 -9.026471376419067383e-01 -4.603438675403594971e-01
1.027019858360290527e+00 -8.042331337928771973e-01 -3.487927317619323730e-01
3.476751968264579773e-02 -7.369151115417480469e-01 5.971691012382507324e-02
4.307784140110015869e-01 -8.901712894439697266e-01 -1.762134075164794922e+00
-2.687395513057708740e-01 -1.055426478385925293e+00 -2.906306982040405273e-01
8.460906744003295898e-01 -7.673555016517639160e-01 -2.728284299373626709e-01
2.821912802755832672e-02 -1.042468667030334473e+00 -4.768173992633819580e-01
9.040067791938781738e-01 -9.734975695610046387e-01 -4.990896284580230713e-01
1.394497007131576538e-01 -6.989361643791198730e-01 -2.820137701928615570e-02
9.373539686203002930e-01 -7.800062298774719238e-01 -3.014190196990966797e-01
1.086775541305541992e+00 -7.095178961753845215e-01 -3.845905363559722900e-01
3.857598900794982910e-01 -8.512737154960632324e-01 -3.261012732982635498e-01
9.111842513084411621e-01 -7.460962533950805664e-01 -3.115510940551757812e-01
-3.098727166652679443e-01 -7.767877578735351562e-01 -9.580948948860168457e-02
-2.203651517629623413e-01 -7.182415723800659180e-01 -2.490467727184295654e-01
2.238631248474121094e-01 -9.612799882888793945e-01 -3.437477052211761475e-01
1.141300052404403687e-01 -7.696451544761657715e-01 -2.380575537681579590e-01
-3.230904638767242432e-01 -8.960276842117309570e-01 -1.959578245878219604e-01
4.212444424629211426e-01 -9.054389595985412598e-01 -1.829724311828613281e+00
-7.728229463100433350e-02 -8.165580034255981445e-01 -2.310051321983337402e-01
1.325870156288146973e-01 -9.432976841926574707e-01 -3.631345927715301514e-01
1.559610664844512939e-02 -6.012178063392639160e-01 1.805086247622966766e-02
1.106004193425178528e-01 -5.404537916183471680e-01 3.359491750597953796e-02
8.213669806718826294e-02 -1.100546479225158691e+00 -6.210976243019104004e-01
1.841446906328201294e-01 -1.243608444929122925e-01 3.610066771507263184e-01
-1.347679346799850464e-01 -1.214118957519531250e+00 -5.214875936508178711e-01
-4.857648611068725586e-01 -8.662413060665130615e-02 3.972600996494293213e-01
-7.834140211343765259e-02 -7.513487935066223145e-01 -9.987588971853256226e-02
-1.128060594201087952e-01 -9.138896465301513672e-01 -3.480137288570404053e-01
4.024319350719451904e-01 -8.446387052536010742e-01 -1.826671838760375977e+00
-2.525137066841125488e-01 -4.802774786949157715e-01 -3.226866200566291809e-02
-3.673243820667266846e-01 -8.644375801086425781e-01 -1.637413799762725830e-01
9.507833980023860931e-03 -6.217158436775207520e-01 -1.180288661271333694e-02
-1.031666174530982971e-01 -4.427003264427185059e-01 1.822474449872970581e-01
-3.276756405830383301e-02 -5.400095582008361816e-01 3.840728849172592163e-02
-2.769042849540710449e-01 -5.874912142753601074e-01 -8.374865353107452393e-02
6.833796203136444092e-02 2.336245030164718628e-01 7.206851840019226074e-01
9.619481116533279419e-02 -4.769795536994934082e-01 9.439118951559066772e-02
1.063059210777282715e+00 -5.863485336303710938e-01 -2.445272505283355713e-01
9.691516757011413574e-01 -6.076939702033996582e-01 -2.450810819864273071e-01
-1.176780536770820618e-01 -6.185213327407836914e-01 -7.980792969465255737e-02
-1.354973316192626953e-01 -2.710684835910797119e-01 2.316848039627075195e-01
9.369032979011535645e-01 -8.771826028823852539e-01 -4.587430059909820557e-01
-3.451245427131652832e-01 -7.747136354446411133e-01 -2.553018629550933838e-01
4.283272325992584229e-01 -5.631410479545593262e-01 -4.066447168588638306e-02
-4.221169948577880859e-01 -6.328909397125244141e-01 -7.559401541948318481e-02
2.373212873935699463e-01 -1.136886954307556152e+00 -6.164146065711975098e-01
6.745285391807556152e-01 -1.166599035263061523e+00 -6.048712134361267090e-01
9.116032719612121582e-01 -5.984734892845153809e-01 -2.724053561687469482e-01
2.888851426541805267e-02 -5.497567057609558105e-01 9.611496329307556152e-02
-2.885102331638336182e-01 -9.059600830078125000e-01 -2.432341873645782471e-01
9.862419366836547852e-01 -9.864704608917236328e-01 -5.045566558837890625e-01
9.327684044837951660e-01 -5.008822083473205566e-01 -3.019766882061958313e-02
1.355620145797729492e+00 4.467236250638961792e-02 3.687458932399749756e-01
1.010640501976013184e+00 -1.122136235237121582e+00 -4.606709182262420654e-01
2.260015010833740234e-01 9.020953625440597534e-02 4.212591946125030518e-01
-1.695667952299118042e-01 -1.067933559417724609e+00 -4.976372420787811279e-01
-3.859108313918113708e-03 -9.262705445289611816e-01 -4.347342550754547119e-01
-3.406767249107360840e-01 -8.987578153610229492e-01 -4.028436243534088135e-01
9.666512012481689453e-01 -1.003962278366088867e+00 -4.539574980735778809e-01
2.367625385522842407e-01 -9.840753674507141113e-01 -4.410905539989471436e-01
5.043737292289733887e-01 -6.514062881469726562e-01 -2.074183076620101929e-01
-1.034990772604942322e-01 -5.707914829254150391e-01 3.819246590137481689e-02
1.191096544265747070e+00 -2.854340970516204834e-01 8.757394738495349884e-03
5.692419782280921936e-02 -5.090951323509216309e-01 9.061424434185028076e-02
1.061444520950317383e+00 -3.948551714420318604e-01 -3.719951258972287178e-03
3.740766271948814392e-02 -2.964295744895935059e-01 2.963920831680297852e-01
-4.754450023174285889e-01 -3.456540703773498535e-01 2.110764235258102417e-01
-1.607821583747863770e-01 -6.493166685104370117e-01 -8.184366673231124878e-02
-1.531394869089126587e-01 -5.840120315551757812e-01 -5.132816731929779053e-02
1.254355907440185547e+00 -2.337358742952346802e-01 1.406505256891250610e-01
5.133426189422607422e-01 -1.091043710708618164e+00 -1.296726316213607788e-01
-7.298674583435058594e-01 1.348697841167449951e-01 6.343137621879577637e-01
-6.092793345451354980e-01 -4.473921656608581543e-01 1.921060532331466675e-01
1.026814460754394531e+00 -4.058336913585662842e-01 -2.720229094848036766e-03
1.464706361293792725e-01 -7.241593003273010254e-01 -4.967698082327842712e-02
-3.881369903683662415e-02 -1.008298039436340332e+00 -5.695441961288452148e-01
1.170305490493774414e+00 2.662217617034912109e-01 2.832278311252593994e-01
8.644047379493713379e-01 -4.283060133457183838e-01 -4.599963873624801636e-02
-1.520593613386154175e-01 -1.460807323455810547e-01 3.363106548786163330e-01
8.989685177803039551e-01 -2.818817496299743652e-01 9.717331826686859131e-02
9.066907167434692383e-01 -1.319584101438522339e-01 3.469572663307189941e-01
-5.199155304580926895e-03 -9.114748239517211914e-01 -3.097566962242126465e-01
1.063168048858642578e-02 -7.141482830047607422e-01 -7.249911874532699585e-02
1.779784709215164185e-01 -7.373894453048706055e-01 -1.447954494506120682e-02
1.032368302345275879e+00 -8.062039613723754883e-01 -3.757126033306121826e-01
1.140453740954399109e-01 -7.364951968193054199e-01 -1.272276937961578369e-01
4.075537919998168945e-01 -8.762069344520568848e-01 -1.809419035911560059e+00
7.033387422561645508e-01 -1.170379400253295898e+00 -6.339836716651916504e-01
-2.759021818637847900e-01 -9.480863809585571289e-01 -3.100115358829498291e-01
1.063490733504295349e-01 -9.455282688140869141e-01 -4.764900803565979004e-01
3.963958919048309326e-01 -8.645993471145629883e-01 -3.226532042026519775e-01
-1.388365477323532104e-01 -6.766499876976013184e-01 -1.413754373788833618e-01
1.053410698659718037e-03 -9.439160823822021484e-01 -3.524836897850036621e-01
-1.529165506362915039e-01 -1.258682847023010254e+00 -4.988383948802947998e-01
-6.880930811166763306e-02 -1.013784885406494141e+00 -3.948746621608734131e-01
3.007246851921081543e-01 -2.572785690426826477e-02 4.011841416358947754e-01
1.153590440750122070e+00 3.639486432075500488e-02 2.876769900321960449e-01
1.081777572631835938e+00 -6.786466240882873535e-01 -3.465215563774108887e-01
9.236763119697570801e-01 -8.809251785278320312e-01 -3.795967996120452881e-01
-2.306386381387710571e-01 -4.097773432731628418e-01 2.082052379846572876e-01
1.118485450744628906e+00 -4.941205680370330811e-01 -1.067507863044738770e-01
9.573022127151489258e-01 -7.415727972984313965e-01 -3.180607855319976807e-01
-2.449376583099365234e-01 -9.365606904029846191e-01 -2.898464798927307129e-01
-4.666458442807197571e-02 -9.896246194839477539e-01 -4.230058193206787109e-01
-5.039392039179801941e-02 -9.683334231376647949e-01 -4.045302271842956543e-01
-3.440838456153869629e-01 -4.752661585807800293e-01 7.023359835147857666e-02
6.706912815570831299e-02 -6.760869622230529785e-01 -5.406143516302108765e-02
8.713185191154479980e-01 -6.839703917503356934e-01 -2.837169468402862549e-01
8.429211974143981934e-01 -8.136047124862670898e-01 -4.344906508922576904e-01
-6.351085752248764038e-02 -8.022322654724121094e-01 -2.048502117395401001e-01
-1.837743073701858521e-01 -6.330074071884155273e-01 -1.443750876933336258e-02
-7.875795662403106689e-02 -8.490493893623352051e-01 -2.255785763263702393e-01
1.051189064979553223e+00 -9.069766998291015625e-01 -3.755474984645843506e-01
6.854101419448852539e-01 -8.620772957801818848e-01 -4.199051260948181152e-01
-1.613988131284713745e-01 -1.344857662916183472e-01 4.301189482212066650e-01
7.720479369163513184e-01 -6.031437516212463379e-01 -3.028622269630432129e-01
1.216764450073242188e+00 -1.765808016061782837e-01 1.349008232355117798e-01
2.594247646629810333e-02 -8.436591029167175293e-01 -2.924446165561676025e-01
-2.158855050802230835e-01 -7.282909750938415527e-01 -1.788325905799865723e-01
9.228769540786743164e-01 -7.323522567749023438e-01 -2.958131432533264160e-01
-7.162221074104309082e-01 -3.584101498126983643e-01 2.135180532932281494e-01
-6.597813963890075684e-02 -8.495250344276428223e-01 -2.131261378526687622e-01
1.474450528621673584e-01 2.969826757907867432e-01 5.677754282951354980e-01
-1.435396522283554077e-01 -9.638094902038574219e-01 -3.769416213035583496e-01
4.111313223838806152e-01 -8.507421016693115234e-01 -1.815986752510070801e+00
1.626315861940383911e-01 -7.578872442245483398e-01 -2.558546960353851318e-01
2.745927572250366211e-01 -7.208185791969299316e-01 -2.164102196693420410e-01
-1.603841483592987061e-01 -8.026634454727172852e-01 -1.817885488271713257e-01
1.024055957794189453e+00 -9.490536898374557495e-02 2.086284756660461426e-01
1.152804374694824219e+00 -5.391992926597595215e-01 -2.498314082622528076e-01
3.439686000347137451e-01 -7.222852110862731934e-01 -1.982902139425277710e-01
-8.744204044342041016e-02 -5.138432383537292480e-01 4.151746258139610291e-02
-1.165076613426208496e+00 3.890231549739837646e-01 9.474272131919860840e-01
1.260242581367492676e+00 1.298267394304275513e-01 2.499094009399414062e-01
9.605034589767456055e-01 -7.937250137329101562e-01 -3.982095420360565186e-01
-5.674847215414047241e-02 -8.357875347137451172e-01 -2.436579018831253052e-01
-1.135737150907516479e-01 -2.844374179840087891e-01 3.310443460941314697e-01
2.057247906923294067e-01 -4.259562790393829346e-01 2.991199195384979248e-01
5.442744493484497070e-01 -8.063212037086486816e-01 -3.377808928489685059e-01
8.806954026222229004e-01 -6.071296930313110352e-01 -2.435176521539688110e-01
7.940142154693603516e-01 -7.072880268096923828e-01 -2.674663662910461426e-01
-2.644208073616027832e-01 -3.857463300228118896e-01 7.398197054862976074e-02
1.588914990425109863e-01 -8.256117105484008789e-01 -2.371413707733154297e-01
8.660571575164794922e-01 -7.444792389869689941e-01 -1.910048425197601318e-01
-4.427094385027885437e-02 -7.592420578002929688e-01 -1.602934151887893677e-01
5.018582344055175781e-01 -7.677360773086547852e-01 -2.379987537860870361e-01
7.659338712692260742e-01 -6.210148334503173828e-01 3.914024680852890015e-02
8.271786570549011230e-01 -6.549392938613891602e-01 -2.104789018630981445e-01
-3.178511559963226318e-01 -9.209917187690734863e-01 -2.868556678295135498e-01
8.881307840347290039e-01 -8.742415308952331543e-01 -4.512121677398681641e-01
-2.375598102807998657e-01 -8.511210680007934570e-01 -2.817663252353668213e-01
1.114843726158142090e+00 -5.589283704757690430e-01 -1.918989419937133789e-01
1.168235778808593750e+00 -4.211473166942596436e-01 -8.804735541343688965e-02
-1.435230076313018799e-01 -1.979241520166397095e-01 3.434162139892578125e-01
-3.073722422122955322e-01 -9.927480220794677734e-01 -2.699526846408843994e-01
4.936695098876953125e-01 -8.343442678451538086e-01 -3.266317546367645264e-01
-1.958538889884948730e-01 -7.973696589469909668e-01 -2.046326845884323120e-01
1.095530509948730469e+00 -5.797437429428100586e-01 -1.664296388626098633e-01
9.074761271476745605e-01 -6.189705729484558105e-01 6.748079787939786911e-03
3.729906678199768066e-01 -7.604272365570068359e-01 -1.482627838850021362e-01
-2.329072356224060059e-01 -3.870736062526702881e-01 9.354975074529647827e-02
4.472789466381072998e-01 -9.048181176185607910e-01 -1.732812881469726562e+00
-3.102586567401885986e-01 -9.720212221145629883e-01 -4.564340710639953613e-01
9.378264546394348145e-01 -7.684381604194641113e-01 -3.557313084602355957e-01
1.026663541793823242e+00 -2.002757489681243896e-01 1.368571817874908447e-01
1.073782324790954590e+00 -1.892694681882858276e-01 1.281319707632064819e-01
-1.729908138513565063e-01 -1.106419324874877930e+00 -5.714135169982910156e-01
1.693379580974578857e-01 -8.661112189292907715e-01 -2.762341201305389404e-01
-8.139896988868713379e-01 -4.511393234133720398e-02 5.155538916587829590e-01
9.944933652877807617e-02 -6.705986857414245605e-01 -1.262695342302322388e-01
8.505420088768005371e-01 2.075758576393127441e-01 2.591513693332672119e-01
5.001807212829589844e-01 -8.368102312088012695e-01 -3.295770585536956787e-01
-3.731351345777511597e-02 -8.855038881301879883e-01 -2.924183905124664307e-01
1.079880118370056152e+00 -3.721640110015869141e-01 3.001932241022586823e-02
-5.348124504089355469e-01 -1.157457605004310608e-01 3.645003139972686768e-01
8.501295447349548340e-01 -1.066726684570312500e+00 -5.210776329040527344e-01
-2.329506576061248779e-01 -8.735455870628356934e-01 -2.941640317440032959e-01
1.455953955650329590e+00 3.698089122772216797e-01 3.067807555198669434e-01
7.720667719841003418e-01 -1.213749408721923828e+00 -5.339912176132202148e-01
8.147284984588623047e-01 -7.593979239463806152e-01 -2.285602986812591553e-01
-6.409809589385986328e-01 -4.991169273853302002e-01 8.989031612873077393e-02
-1.860799640417098999e-01 -2.550781667232513428e-01 3.163761198520660400e-01
1.055958509445190430e+00 -3.149662315845489502e-01 1.220332831144332886e-02
4.138834476470947266e-01 -8.462789058685302734e-01 -2.717238366603851318e-01
9.654026031494140625e-01 -1.174347996711730957e+00 -3.727928996086120605e-01
-2.216000258922576904e-01 -4.085775017738342285e-01 1.432003378868103027e-01
-4.445867538452148438e-01 -3.705385327339172363e-01 1.647679060697555542e-01
4.452489018440246582e-01 -1.068736672401428223e+00 -6.443071961402893066e-01
-3.644726872444152832e-01 -6.096310019493103027e-01 -1.248060166835784912e-02
1.017905712127685547e+00 -4.323580265045166016e-01 -2.250339463353157043e-02
3.931156098842620850e-01 -8.625558614730834961e-01 -1.851834177970886230e+00
9.859484434127807617e-01 -5.267995595932006836e-01 -1.649652570486068726e-01
-3.236064910888671875e-01 -5.624890923500061035e-01 2.343828044831752777e-02
-3.455622196197509766e-01 -1.095905423164367676e+00 -3.100953698158264160e-01
4.149918258190155029e-01 -8.694933056831359863e-01 -1.805239558219909668e+00
-5.018600225448608398e-01 -7.573126554489135742e-01 -2.118818163871765137e-01
1.166095018386840820e+00 -4.840910434722900391e-01 -1.730076670646667480e-01
-2.193577140569686890e-01 -3.398874104022979736e-01 2.028495818376541138e-01
-2.704754769802093506e-01 -5.898466110229492188e-01 -3.059715963900089264e-02
2.967647910118103027e-01 -9.101905226707458496e-01 -2.329265624284744263e-01
-3.444028198719024658e-01 -5.957484245300292969e-01 -1.757827401161193848e-02
-2.426511496305465698e-01 -1.383420705795288086e+00 -5.393005013465881348e-01
4.101246893405914307e-01 -8.551801443099975586e-01 -1.829937815666198730e+00
-2.099514007568359375e-01 -1.196011781692504883e+00 -4.918321967124938965e-01
7.712057232856750488e-01 -8.326476812362670898e-01 -3.782536685466766357e-01
9.971914887428283691e-01 -6.309716105461120605e-01 -2.675849795341491699e-01
-2.859961390495300293e-01 -7.982676625251770020e-01 -1.627208739519119263e-01
8.261569738388061523e-01 -6.968892812728881836e-01 -2.326964288949966431e-01
-1.514175683259963989e-01 -8.123795986175537109e-01 -1.799257993698120117e-01
-4.168816506862640381e-01 -5.200425982475280762e-01 9.183418005704879761e-02
-4.590872675180435181e-02 -6.930762529373168945e-01 -1.286373734474182129e-01
-1.510749757289886475e-01 -2.870033383369445801e-01 2.801800370216369629e-01
6.900604069232940674e-02 -7.944967150688171387e-01 -1.813217103481292725e-01
8.593739569187164307e-02 -6.173675656318664551e-01 -1.069340761750936508e-02
1.115506172180175781e+00 -6.625184416770935059e-01 -2.882626950740814209e-01
7.758631557226181030e-02 -1.080880641937255859e+00 -4.150201380252838135e-01
2.688460946083068848e-01 -5.129990577697753906e-01 1.570818126201629639e-01
-8.213558793067932129e-02 -9.459732174873352051e-01 -3.394051194190979004e-01
-6.545419692993164062e-01 -4.618133902549743652e-01 1.927017867565155029e-01
7.372436523437500000e-01 -4.762541651725769043e-01 -1.295659542083740234e-01
-3.348987996578216553e-01 -9.342396259307861328e-01 -3.000431060791015625e-01
-1.098846495151519775e-01 -1.021430134773254395e+00 -4.073947370052337646e-01
8.605113625526428223e-01 -8.201493024826049805e-01 -3.373892307281494141e-01
3.640308678150177002e-01 -1.817482709884643555e-02 4.032388925552368164e-01
